ply
format ascii 1.0
element vertex 253
property float x
property float y
property float z
end_header
2.842765 -2.194957 9.793788
-5.363264 -4.469098 25.856232
0.018502 0.699063 -4.418125
-0.744449 0.091008 -0.814036
0.041187 -2.377484 13.505396
0.121389 -2.207979 13.543154
-2.007864 -2.682955 16.711666
0.442282 -0.508290 4.569690
3.105196 -0.534915 8.662968
-0.658067 0.078042 -0.706861
0.030656 0.042922 -1.897793
-0.507700 -0.007145 -1.199889
-1.104625 -0.057602 -2.882325
1.936587 0.197741 11.106797
1.222599 0.217455 11.947255
1.914458 0.261731 11.179676
-1.155451 0.229380 -3.075982
0.969968 0.296042 10.412489
-4.304981 0.274509 14.867616
2.050876 0.474765 10.996193
0.806752 0.181334 3.474787
1.209959 0.615136 12.127418
1.557880 0.299777 7.079020
1.174596 0.769896 12.173203
2.351805 -2.557203 11.150003
-5.501542 -4.567662 26.430525
-4.659750 -2.073273 14.309584
2.807677 -1.927710 10.399547
2.542852 -0.726295 3.938337
2.716494 -1.826418 10.240101
-1.328213 -2.568510 14.429360
2.635560 -0.611426 4.559379
-3.928724 -2.259850 14.584604
-3.701296 -2.189648 14.278138
-5.696377 -7.020476 37.645719
-0.299762 -1.851524 13.329037
0.934987 -0.234814 1.927609
1.178964 -0.076909 1.408357
-6.797867 -0.194595 14.722301
2.711433 0.308664 9.864331
2.720451 0.381285 9.907947
0.871189 -0.062357 -6.414699
2.628018 0.490932 10.247825
1.098771 0.407344 8.910145
0.388815 0.779655 12.012701
0.045426 -1.154110 6.433082
2.870633 -0.955191 5.016380
0.746015 -2.283328 11.654938
-6.310284 -3.290516 15.961340
-6.305378 -3.276353 15.948589
-6.291195 -3.234240 15.911588
0.132102 -2.236885 13.411532
0.731370 -1.288167 11.704954
0.130928 -2.199678 13.369882
0.726377 -1.230733 11.646536
0.533089 -0.196759 1.205085
0.701509 -1.021213 11.325139
-0.904777 0.097455 -1.460025
-3.513643 -2.122349 14.249986
1.732598 -1.557551 11.556646
2.241875 -1.387400 10.736246
-0.700611 -1.775251 13.777399
0.516572 0.645512 -5.861610
2.262243 -0.321338 3.528967
-0.280009 0.121586 -1.489186
0.929275 -1.216253 11.345608
-0.205496 -0.153542 3.380594
0.703589 -0.689091 11.372812
-0.996442 0.487485 -2.980761
-0.419969 -0.991546 13.633669
-0.572135 -0.146036 4.071572
2.697254 -0.100521 4.596897
2.407602 -0.284916 10.106519
1.105231 -0.055656 -3.575722
2.123159 0.202212 10.949928
1.337705 0.709411 11.903246
-0.586093 0.101137 -0.935047
-0.142004 1.205855 13.028309
0.700769 -0.353252 1.712610
0.163886 -0.807565 4.114901
1.877141 3.853522 -17.735140
1.970796 4.170288 -19.195344
1.240112 -2.533025 11.264822
2.782140 -2.085384 10.279366
-0.628112 -2.174049 9.975285
-0.830787 0.189076 -1.629002
-10.085971 -19.816912 93.527389
-1.154672 -1.380534 6.234007
-1.073185 -1.698215 7.843643
-0.772882 -2.767432 13.291721
-0.712783 -2.659545 12.775938
0.880212 -4.231129 35.890179
0.739311 -1.391562 11.797605
1.433694 -1.948176 11.084673
0.635965 -0.101294 0.655012
0.680084 -0.197317 1.650311
2.531439 -1.482480 9.880184
-1.169562 -0.311291 5.684043
0.714368 -0.126934 0.902145
2.970930 -0.961897 6.923682
0.298120 -0.517669 4.016896
0.968879 -1.572859 11.288286
-3.864927 -2.107316 14.661011
-2.726444 -1.777157 12.572571
78.254155 2.975163 -137.065967
0.162744 -0.693391 5.105503
-1.922240 0.868331 -5.072761
0.384707 0.128624 -3.983645
-3.082562 -1.818141 14.842478
3.838761 -1.628685 10.705368
-0.574448 -0.588126 4.617859
-0.504910 -0.539722 4.229894
-3.401887 -1.709886 14.829019
2.920658 -0.577799 6.127921
2.908293 -0.802218 9.224932
-0.858381 -1.349415 13.950357
2.909998 -0.433301 6.020497
0.711425 -0.728122 11.335003
-7.639651 -1.461659 16.736031
0.963160 -0.049193 1.091504
-0.380563 0.155218 -1.826939
2.228831 -0.116277 3.291279
2.326634 -0.122055 3.510741
-6.127342 -1.074673 15.883729
-1.216640 0.481309 -3.454328
76.067516 4.963817 -148.588895
2.023030 -0.428586 10.972609
0.683623 -0.991712 9.175948
3.017943 -0.168508 7.309796
-1.682948 -0.429614 12.810719
2.791121 -0.169006 8.987186
0.681667 -0.957534 9.166917
-14.231410 0.857844 34.257822
-13.556914 0.819196 32.741858
0.683329 -0.927666 9.208222
0.236828 -0.061910 2.625919
0.525445 0.455145 -5.302261
47.072741 3.202615 -91.356864
1.288558 -0.122664 11.575320
1.803303 -0.088595 11.482855
-45.748219 -5.083072 81.617980
-0.389056 -0.013655 -1.258541
1.460430 -0.206895 -14.522201
-0.346617 -0.010352 3.422970
3.039082 0.111342 8.196925
-3.318744 0.011653 13.783751
-3.529228 0.031984 14.475207
2.388516 0.189275 10.361728
-3.642130 0.042885 14.846124
-0.332739 0.163235 13.134296
-8.755074 -0.028024 15.558466
1.019471 0.101958 2.094898
1.770748 0.202345 6.086814
-5.320634 0.336647 13.985017
2.595730 0.528390 10.304765
-14.246314 1.007206 24.400233
-0.009803 0.595972 12.177729
3.352665 0.685772 12.103826
-7.189754 0.492743 15.105082
1.741686 0.659988 11.460972
-2.620794 -0.165433 6.504572
-0.875786 -0.019423 3.270365
-0.130039 1.190235 12.855879
0.192840 1.058692 11.062536
1.393880 0.119545 -5.597674
1.506723 0.373095 -8.663913
0.923276 -2.398639 11.531945
-4.700957 -3.086156 14.916388
0.720760 -0.128397 0.751433
-0.360871 0.013417 -1.656433
-0.956596 -0.649029 4.796032
1.064674 -0.178074 1.205752
-0.532864 -0.202120 3.991338
0.836955 -0.408383 3.866173
-4.665077 -1.370286 14.799124
1.058950 -0.064752 1.231525
0.671962 -0.044054 0.770258
0.372916 -0.181051 3.022010
-9.712397 -1.399258 16.513118
2.588748 -0.548141 9.519792
-5.072530 -0.832397 15.017818
1.876850 -0.405507 11.253121
2.348393 -0.344633 10.469288
2.332102 -0.196780 10.560938
-9.672621 -0.679632 16.418315
2.797023 -0.104281 9.015090
2.047158 -0.137580 10.988122
2.475086 0.078008 4.379340
1.780811 0.471607 9.851804
0.144720 0.832384 12.182944
-2.803793 0.831730 13.328254
-0.180627 0.861172 12.287424
-0.846373 1.073565 12.482481
-0.907034 0.250512 3.884518
-1.340755 -1.585922 7.456221
-1.102437 -1.410212 6.664531
0.052656 -0.140723 2.320655
1.337356 -0.147207 1.670849
-0.225185 -0.116600 3.223227
0.955523 -0.532081 11.345465
2.220913 -0.448868 10.533787
-1.946074 0.224114 7.407948
0.522426 0.167153 -5.280025
-39.373073 5.429775 113.710443
0.556543 0.422523 -3.741002
-2.945291 0.926053 11.138544
-0.735521 0.394734 4.016519
-4.866209 -3.308429 15.068307
-4.278170 -2.346259 14.848514
0.009795 -0.213219 3.246177
0.476664 -0.308708 2.325351
-0.532968 -1.318463 13.416456
-8.678952 -1.784646 16.884743
-4.542471 -1.863878 19.704000
-4.208976 -1.747912 18.492445
-5.769140 -2.827229 30.204957
-0.193086 -0.023152 -1.621286
-3.840276 0.044184 8.665507
0.942434 -0.131547 2.220381
0.666907 -0.005187 0.971726
-0.295043 -0.558374 5.369691
0.571794 0.127959 -3.355162
2.054576 0.740634 -6.588623
2.636171 -1.970774 10.139657
0.007456 -0.489220 3.082943
0.434046 -0.118015 1.184959
0.283259 -0.398474 3.114224
0.292163 -0.391119 3.060818
-3.675518 1.078701 -8.811570
0.252095 -0.104754 1.378440
-5.786494 -1.752270 15.482493
0.645098 -1.247221 11.266826
-3.647299 -1.552601 16.451931
-1.321133 -0.628493 6.823111
-0.913907 -0.810876 9.161931
2.276839 -0.109403 3.377380
-4.334732 0.124012 15.011692
2.170490 0.376389 10.699461
0.486511 -0.210333 1.337798
0.587607 -0.198206 1.261937
0.880180 -0.164472 -3.217718
-0.038637 0.067107 2.128149
0.608836 -1.800295 11.502105
0.595230 -1.600952 11.334473
-0.632667 0.108963 -0.961563
8.625981 9.856807 -42.737563
-0.961374 0.965535 -5.419880
1.693423 0.914745 -4.675395
7.771381 1.428765 -18.441692
-0.281367 -0.438913 10.006281
0.654459 -0.114811 0.766200
8.494331 3.661875 -41.864436
372.576005 -72.527591 -907.878113
